# .PCD v0.7 - Point Cloud Data file format
VERSION 0.7
FIELDS x y z
SIZE 4 4 4
TYPE F F F
COUNT 1 1 1
WIDTH 1248
HEIGHT 1
VIEWPOINT 0 0 0 1 0 0 0
POINTS 1248
DATA ascii
-0.012224525 0.041850209 0.012239695
-0.012704045 0.0410963 0.012239635
-0.013183564 0.040342361 0.012239635
-0.013336957 0.038908273 0.011471272
-0.013817459 0.038152844 0.011471212
-0.014297932 0.037397385 0.011471212
-0.014778465 0.036641926 0.011471212
-0.015258938 0.035886496 0.011471093
-0.014454305 0.032379925 0.0083978772
-0.013657391 0.028861165 0.0053245425
-0.013187617 0.026021034 0.0030195117
-0.013360351 0.024556488 0.0022512078
-0.013217658 0.022395045 0.00071448088
-0.013078839 0.020227492 -0.00082212687
-0.012943894 0.018053859 -0.0023588538
-0.013756365 0.017969429 -0.0015905499
-0.014253289 0.017188102 -0.0015905499
-0.015062809 0.017108232 -0.00082230568
-0.015870392 0.017031401 -5.4061413e-05
-0.016365439 0.016253114 -5.4121017e-05
-0.017170101 0.016180903 0.00071412325
-0.017664164 0.015404135 0.00071412325
-0.018465966 0.015336454 0.0014824271
-0.018959075 0.014561206 0.0014824271
-0.019452125 0.013785988 0.0014824271
-0.019945234 0.01301071 0.0014823079
-0.020438343 0.012235492 0.0014823079
-0.021234304 0.012176931 0.0022505522
-0.0217264 0.011403203 0.0022504926
-0.022218525 0.010629475 0.0022504926
-0.022410661 0.0091345012 0.0014821887
-0.022604734 0.0076364279 0.00071376562
-0.02250272 0.0054109991 -0.00082290173
-0.022701681 0.0039053261 -0.0015912652
-0.023198634 0.0031239688 -0.0015912652
-0.023695618 0.0023426414 -0.0015913248
-0.023898393 0.00083085895 -0.0023596883
-0.02439633 4.8011541e-05 -0.0023596883
-0.024894267 -0.00073483586 -0.0023597479
-0.025392205 -0.0015177429 -0.0023598075
-0.025890142 -0.0023005903 -0.0023598075
-0.026388079 -0.0030834377 -0.0023598671
-0.026886016 -0.0038662851 -0.0023599267
-0.027383953 -0.0046491325 -0.0023599267
-0.027881861 -0.0054320395 -0.0023599863
-0.028094321 -0.0069590509 -0.0031283498
-0.028593212 -0.007743448 -0.0031284094
-0.029092103 -0.0085277855 -0.003128469
-0.029591024 -0.0093121827 -0.003128469
-0.030089915 -0.01009658 -0.0031285286
-0.030588835 -0.010880977 -0.0031285882
-0.031087726 -0.011665344 -0.0031285882
-0.031586617 -0.012449741 -0.0031286478
-0.032085508 -0.013234109 -0.0031287074
-0.032861203 -0.013260633 -0.0023604035
-0.03335914 -0.01404354 -0.0023604035
-0.033857048 -0.014826387 -0.0023604631
-0.034354985 -0.015609235 -0.0023605227
-0.034852922 -0.016392082 -0.0023605227
-0.035622716 -0.016409487 -0.0015922189
-0.03611967 -0.017190814 -0.0015922785
-0.036616653 -0.017972171 -0.0015923381
-0.037113607 -0.018753499 -0.0015923381
-0.037878543 -0.018763274 -0.00082409382
-0.038374513 -0.019543111 -0.00082415342
-0.038870543 -0.020322949 -0.00082415342
-0.039631635 -0.020326644 -5.5909157e-05
-0.040126652 -0.021104932 -5.5968761e-05
-0.040884823 -0.021104068 0.00071233511
-0.041378886 -0.021880835 0.00071227551
-0.041872948 -0.022657603 0.0007122159
-0.042367011 -0.023434371 0.0007122159
-0.042861074 -0.024211138 0.0007121563
-0.043613464 -0.024201125 0.0014805198
-0.044106573 -0.024976343 0.0014804602
-0.044599622 -0.025751621 0.0014804006
-0.045092732 -0.026526868 0.0014804006
-0.045585811 -0.027302086 0.001480341
-0.046078891 -0.028077334 0.0014802814
-0.046572 -0.028852582 0.0014802814
-0.047065079 -0.02962783 0.0014802814
-0.047558159 -0.030403078 0.0014801621
-0.048051268 -0.031178325 0.0014801621
-0.048544347 -0.031953603 0.0014801621
-0.049037427 -0.032728821 0.0014800429
-0.049530536 -0.033504099 0.0014800429
-0.050269336 -0.033472747 0.0022482872
-0.050761431 -0.034246475 0.0022482276
-0.051253587 -0.035020202 0.0022482276
-0.051745683 -0.03579393 0.0022482276
-0.052237779 -0.036567658 0.0022481084
-0.052729934 -0.037341386 0.0022481084
-0.053222045 -0.038115114 0.0022481084
-0.053714156 -0.038888812 0.0022479892
-0.054206282 -0.03966257 0.0022479892
-0.054698393 -0.040436268 0.0022479892
-0.055190504 -0.041209966 0.0022479296
-0.055682644 -0.041983724 0.00224787
-0.056174755 -0.042757422 0.00224787
-0.056666866 -0.04353115 0.0022478104
-0.057158977 -0.044304878 0.0022477508
-0.057651117 -0.045078605 0.0022477508
0.031164855 0.087554485 -0.0037097335
0.029467314 0.088456511 -0.0014014244
0.028971344 0.087676704 -0.001401484
0.028475374 0.086896867 -0.001401484
0.027582735 0.08668375 -0.00063210726
0.026692063 0.086473703 0.0001372695
0.025803238 0.086266696 0.00090676546
0.025310189 0.085491449 0.00090670586
0.024817079 0.084716201 0.00090664625
0.023932189 0.084515244 0.001676023
0.023440093 0.083741516 0.001676023
0.022947997 0.082967818 0.0016759634
0.022066981 0.08277297 0.0024453998
0.021575838 0.082000792 0.0024453402
0.021084666 0.081228584 0.0024452806
0.020207554 0.081039846 0.0032147169
0.019717366 0.080269158 0.0032146573
0.019227177 0.0794985 0.0032146573
0.018353909 0.079315841 0.0039840341
0.017864674 0.078546673 0.0039840341
0.017375469 0.077777535 0.0039840341
0.016506106 0.077600956 0.0047534108
0.016017884 0.076833338 0.0047534108
0.015151411 0.076661348 0.0055227876
0.014664143 0.07589522 0.005522728
0.013800591 0.075727791 0.0062921643
0.012938946 0.075563461 0.0070615411
0.012079209 0.075402111 0.007831037
0.010848105 0.075847089 0.0093698502
0.0099932551 0.075693399 0.010139287
0.0091403425 0.075542718 0.010908663
0.008289367 0.075395077 0.01167804
0.0074403584 0.075250536 0.012447476
0.0065932572 0.075108975 0.013216913
0.0053805411 0.075582922 0.014755785
0.004904896 0.074835092 0.014755785
0.004429251 0.074087262 0.014755666
0.0035888851 0.0739564 0.015525162
0.0031141937 0.07321009 0.015525043
0.0026395023 0.072463781 0.015525043
0.0021648407 0.071717471 0.015525043
0.0016901791 0.070971161 0.015524983
0.0012154877 0.070224851 0.015524924
0.00074079633 0.069478542 0.015524924
0.00026610494 0.068732232 0.015524864
-0.00056549907 0.068615079 0.016294301
-0.0010391772 0.067870289 0.016294241
-0.0015129149 0.067125529 0.016294181
-0.0019866228 0.066380739 0.016294181
-0.0024603307 0.065635949 0.016294122
-0.0029340684 0.06489116 0.016294062
-0.0034077466 0.06414637 0.016294062
-0.0038814843 0.06340161 0.016294003
-0.0043551624 0.06265679 0.016293943
-0.0048289001 0.06191203 0.016293943
-0.005302608 0.06116724 0.016293943
-0.0054300725 0.059776545 0.015524447
-0.0059047639 0.059030235 0.015524387
-0.0063794553 0.058283925 0.015524328
-0.0068541169 0.057537615 0.015524328
-0.0073287785 0.056791335 0.015524268
-0.0078034699 0.056044996 0.015524209
-0.0082781613 0.055298686 0.015524209
-0.0087528527 0.054552406 0.015524149
-0.0088889897 0.053148001 0.014754713
-0.0093646348 0.052400142 0.014754593
-0.009503752 0.050991207 0.013985157
-0.0096447468 0.049579173 0.013215601
-0.010122329 0.048828274 0.013215601
-0.010266274 0.04741171 0.012446105
-0.01074484 0.046659321 0.012446105
-0.011223346 0.045906901 0.012446046
-0.011701912 0.045154512 0.012445986
-0.012180477 0.044402093 0.012445986
-0.012659043 0.043649703 0.012445927
-0.013137609 0.042897314 0.012445867
-0.013616174 0.042144924 0.012445867
-0.01409471 0.041392505 0.012445807
-0.014248341 0.039960712 0.011676311
-0.014727861 0.039206773 0.011676252
-0.01520738 0.038452864 0.011676252
-0.015686899 0.037698954 0.011676252
-0.016166419 0.036945015 0.011676133
-0.016645938 0.036191076 0.011676133
-0.016806334 0.034748584 0.010906637
-0.016014189 0.031232864 0.0078287721
-0.015229732 0.027704924 0.0047509074
-0.014769346 0.024857938 0.0024425387
-0.014945209 0.023391098 0.0016730428
-0.014808744 0.021225065 0.00013405085
-0.014676154 0.019052893 -0.0014048219
-0.014859825 0.017573863 -0.0021743178
-0.015668124 0.017493278 -0.0014049411
-0.016474515 0.017415732 -0.00063556433
-0.017278999 0.017341197 0.00013387203
-0.017773062 0.016564429 0.00013381243
-0.018574685 0.016494483 0.00090330839
-0.019067734 0.015719235 0.00090330839
-0.019560844 0.014943987 0.00090318918
-0.020053923 0.014168769 0.00090318918
-0.020850629 0.014106423 0.0016725659
-0.021342784 0.013332695 0.0016725659
-0.02183488 0.012558967 0.0016725063
-0.022326976 0.011785239 0.0016724467
-0.022819132 0.011011511 0.0016724467
-0.022713631 0.0087967217 0.0001334548
-0.02290985 0.0072979033 -0.00063604116
-0.022514373 0.0043488741 -0.0029444098
-0.02301231 0.0035659969 -0.0029444098
-0.023510247 0.0027831495 -0.0029445291
-0.024008185 0.0020002723 -0.0029445291
-0.024213105 0.00048771501 -0.003714025
-0.024711996 -0.00029665232 -0.0037140846
-0.025210887 -0.0010810494 -0.0037141442
-0.025709778 -0.0018654168 -0.0037141442
-0.026208699 -0.0026498139 -0.0037142038
-0.026707619 -0.003434211 -0.0037142634
-0.02720651 -0.0042185783 -0.0037142634
-0.027705401 -0.0050029755 -0.003714323
-0.027919084 -0.0065291822 -0.004483819
-0.028418928 -0.0073150992 -0.0044838786
-0.028918803 -0.0081010163 -0.0044838786
-0.029418677 -0.0088869035 -0.0044839382
-0.029918551 -0.0096728206 -0.0044839978
-0.030418426 -0.010458738 -0.0044839978
-0.03091827 -0.011244625 -0.0044840574
-0.031418175 -0.012030542 -0.004484117
-0.031918019 -0.012816459 -0.004484117
-0.032694399 -0.012846828 -0.0037147403
-0.03319332 -0.013631195 -0.0037147403
-0.033692211 -0.014415592 -0.0037147999
-0.034191102 -0.015199989 -0.0037148595
-0.034962684 -0.015222698 -0.0029453635
-0.035460621 -0.016005546 -0.0029454231
-0.035958499 -0.016788393 -0.0029454827
-0.036456436 -0.01757127 -0.0029454827
-0.036954373 -0.018354148 -0.0029455423
-0.037720114 -0.018367738 -0.002176106
-0.038217098 -0.019149035 -0.0021761656
-0.038714021 -0.019930393 -0.0021762252
-0.039211005 -0.02071172 -0.0021762252
-0.039707959 -0.021493047 -0.0021762848
-0.040467829 -0.021497518 -0.0014068484
-0.040963829 -0.022277325 -0.001406908
-0.041720837 -0.022277206 -0.00063747168
-0.042215854 -0.023055524 -0.00063759089
-0.0427109 -0.023833811 -0.00063759089
-0.043464035 -0.023827583 0.00013184547
-0.043958098 -0.02460435 0.00013178587
-0.044452131 -0.025381118 0.00013178587
-0.044946194 -0.026157886 0.00013172626
-0.045440227 -0.026934654 0.00013166666
-0.045934319 -0.027711451 0.00013166666
-0.046428353 -0.028488189 0.00013160706
-0.046922415 -0.029264987 0.00013154745
-0.047416478 -0.030041724 0.00013154745
-0.048159927 -0.030020297 0.00090104342
-0.048653036 -0.030795544 0.00090092421
-0.049146146 -0.031570822 0.00090092421
-0.049639225 -0.03234604 0.00090092421
-0.050132304 -0.033121318 0.000900805
-0.050625384 -0.033896536 0.000900805
-0.051118463 -0.034671754 0.000900805
-0.051611573 -0.035447031 0.00090074539
-0.052104652 -0.036222279 0.00090068579
-0.052597731 -0.036997527 0.00090068579
-0.053090826 -0.037772775 0.00090062618
-0.05358392 -0.038548023 0.00090056658
-0.054077014 -0.03932327 0.00090056658
-0.054570094 -0.040098518 0.00090050697
-0.055298999 -0.040054232 0.0016698837
-0.05579111 -0.04082796 0.0016698241
-0.05628325 -0.041601688 0.0016698241
-0.056775361 -0.042375416 0.0016697645
-0.057267472 -0.043149114 0.0016697049
-0.057528615 -0.044750005 0.00090026855
-0.058021709 -0.045525223 0.00090020895
0.031455159 0.088167846 -0.0050663352
0.030555993 0.087941766 -0.0042957664
0.029658705 0.087718785 -0.0035251975
0.028763384 0.087498844 -0.0027546287
0.0282664 0.086717486 -0.0027546883
0.027374029 0.086502105 -0.001984179
0.026483566 0.086289763 -0.0012136102
0.025988549 0.085511476 -0.0012136698
0.025100976 0.085303694 -0.00044316053
0.024606913 0.084526926 -0.00044316053
0.02411285 0.083750159 -0.00044316053
0.023229152 0.083548516 0.00032740831
0.022736043 0.082773238 0.00032734871
0.022242934 0.081997991 0.0003272891
0.021363109 0.081802398 0.001097858
0.020871013 0.08102867 0.0010977983
0.020378888 0.080254942 0.0010977387
0.019502968 0.080065459 0.0018683076
0.019011796 0.079293251 0.0018683076
0.018138736 0.079108328 0.0026388168
0.017648548 0.07833764 0.0026387572
0.017158419 0.077566981 0.0026387572
0.016289204 0.077388167 0.0034093261
0.015799999 0.076618999 0.0034092665
0.014933765 0.076444715 0.0041798353
0.014069468 0.076273531 0.0049503446
0.013207048 0.076105326 0.0057209134
0.012346625 0.075940222 0.0064914823
0.01148811 0.075778157 0.0072620511
0.010631531 0.075619131 0.00803262
0.0094056427 0.076067179 0.0095737576
0.008553952 0.075915724 0.010344267
0.0077041686 0.075767368 0.011114776
0.0068562925 0.075622052 0.011885345
0.0060103834 0.075479746 0.012655914
0.0051663816 0.075340539 0.013426483
0.0039589107 0.075817496 0.01496762
0.0034842491 0.075071186 0.01496762
0.0030095875 0.074324876 0.014967501
0.0025348961 0.073578566 0.014967501
0.0020602047 0.072832257 0.014967501
0.0015855134 0.072085947 0.014967442
0.001110822 0.071339637 0.014967382
0.00063616037 0.070593357 0.014967382
-0.00019618869 0.070472389 0.015737891
-0.0006699264 0.069727629 0.015737832
-0.0011436045 0.06898281 0.015737832
-0.0016173422 0.06823805 0.015737832
-0.0020910501 0.06749326 0.015737772
-0.0025647581 0.06674847 0.015737712
-0.0030384958 0.06600371 0.015737712
-0.0035121739 0.06525889 0.015737653
-0.0039859116 0.06451413 0.015737593
-0.0044595897 0.063769341 0.015737593
-0.0049333274 0.063024551 0.015737534
-0.0054070354 0.062279791 0.015737474
-0.0058807433 0.061534971 0.015737474
-0.006354481 0.060790211 0.015737414
-0.0068281591 0.060045391 0.015737355
-0.0073018968 0.059300631 0.015737355
-0.0077756345 0.058555841 0.015737355
-0.0082493126 0.057811052 0.015737236
-0.0087230504 0.057066292 0.015737236
-0.0088574588 0.055667192 0.014966607
-0.0093321502 0.054920882 0.014966547
-0.0098068416 0.054174572 0.014966547
-0.010281533 0.053428262 0.014966547
-0.010756224 0.052681953 0.014966428
-0.010896444 0.051273733 0.014195859
-0.011038691 0.049862474 0.013425231
-0.011182785 0.048448175 0.012654603
-0.011660367 0.047697276 0.012654543
-0.012137979 0.046946436 0.012654483
-0.012615532 0.046195537 0.012654483
-0.013093144 0.045444638 0.012654424
-0.013570726 0.044693798 0.012654364
-0.014048308 0.043942899 0.012654364
-0.01452592 0.043192029 0.012654305
-0.015003473 0.042441159 0.012654245
-0.015157312 0.041011602 0.011883676
-0.015635878 0.040259212 0.011883616
-0.016114444 0.039506823 0.011883557
-0.016593009 0.038754433 0.011883557
-0.017071575 0.038002014 0.011883497
-0.017550111 0.037249595 0.011883438
-0.018028647 0.036497205 0.011883438
-0.018507212 0.035744816 0.011883378
-0.01835373 0.033610731 0.010342181
-0.017574072 0.030085832 0.0072597861
-0.016802102 0.026548713 0.0041773915
-0.016351044 0.023694813 0.0018655062
-0.016530067 0.022225678 0.0010948777
-0.016399831 0.020055026 -0.00044637918
-0.016273469 0.017878324 -0.0019875169
-0.017078668 0.017800003 -0.0012170076
-0.01788196 0.017724723 -0.00044649839
-0.018376023 0.016947955 -0.00044649839
-0.019176453 0.016877294 0.00032407045
-0.019669533 0.016102046 0.00032407045
-0.020162612 0.015326798 0.00032407045
-0.020959109 0.015262157 0.0010945201
-0.021451265 0.014488459 0.0010945201
-0.021943361 0.013714731 0.0010944605
-0.022435486 0.012941003 0.0010944009
-0.022927612 0.012167275 0.0010944009
-0.023121148 0.010675311 0.00032383204
-0.023018986 0.0084604919 -0.0012174845
-0.022920758 0.006239593 -0.0027586818
-0.022826374 0.0040125847 -0.0042999387
-0.023325294 0.0032281876 -0.0042999387
-0.023824185 0.0024438202 -0.0042999983
-0.024030298 0.00093200803 -0.0050706267
-0.024530202 0.00014612079 -0.0050706267
-0.025030047 -0.00063979626 -0.0050707459
-0.025529921 -0.0014257133 -0.0050707459
-0.026029795 -0.0022116005 -0.0050707459
-0.02652967 -0.0029975176 -0.0050708652
-0.027029544 -0.0037834346 -0.0050708652
-0.027529389 -0.0045693219 -0.0050708652
-0.028029293 -0.0053552389 -0.0050709248
-0.028245091 -0.0068822503 -0.0058415532
-0.028745919 -0.0076696575 -0.0058416128
-0.029246777 -0.0084570944 -0.0058416724
-0.029747605 -0.0092445314 -0.0058416724
-0.030248433 -0.010031968 -0.005841732
-0.030749291 -0.010819405 -0.0058417916
-0.031250119 -0.011606842 -0.0058417916
-0.032028228 -0.011642486 -0.0050712228
-0.032528102 -0.012428433 -0.0050712824
-0.033027977 -0.01321432 -0.005071342
-0.033527821 -0.014000237 -0.005071342
-0.034027696 -0.014786124 -0.0050714016
-0.034799963 -0.014812678 -0.0043008924
-0.035298884 -0.015597045 -0.0043008924
-0.035797775 -0.016381413 -0.0043008924
-0.036296695 -0.01716581 -0.0043010116
-0.036795586 -0.017950207 -0.0043010116
-0.037562102 -0.017967582 -0.0035304427
-0.038060039 -0.018750459 -0.0035304427
-0.038557947 -0.019533306 -0.0035305023
-0.039055884 -0.020316154 -0.0035305619
-0.039553821 -0.021099031 -0.0035305619
-0.040314466 -0.021107286 -0.0027599931
-0.040811449 -0.021888644 -0.0027600527
-0.041308433 -0.022669971 -0.0027601123
-0.041805357 -0.023451298 -0.0027601123
-0.042561173 -0.023451924 -0.0019895434
-0.043057173 -0.024231732 -0.0019896626
-0.043553144 -0.025011569 -0.0019896626
-0.044305086 -0.025006086 -0.0012190938
-0.044800133 -0.025784403 -0.001219213
-0.045295149 -0.026562691 -0.001219213
-0.046043187 -0.026551157 -0.00044864416
-0.04653728 -0.027327925 -0.00044870377
-0.047031313 -0.028104693 -0.00044876337
-0.047525376 -0.02888146 -0.00044876337
-0.048019439 -0.029658228 -0.00044882298
-0.048513502 -0.030434996 -0.00044888258
-0.049007565 -0.031211764 -0.00044888258
-0.049501628 -0.031988531 -0.00044894218
-0.049995661 -0.032765299 -0.00044900179
-0.050489753 -0.033542067 -0.00044900179
-0.050983787 -0.034318835 -0.00044900179
-0.05147782 -0.035095602 -0.000449121
-0.051971883 -0.03587237 -0.000449121
-0.052465945 -0.036649138 -0.000449121
-0.05319953 -0.036614746 0.00032144785
-0.053692609 -0.037389964 0.00032144785
-0.054185703 -0.038165241 0.00032138824
-0.054678798 -0.038940459 0.00032132864
-0.055171877 -0.039715737 0.00032132864
-0.055664971 -0.040490955 0.00032126904
-0.056158051 -0.041266203 0.00032120943
-0.05665113 -0.042041451 0.00032120943
-0.057144225 -0.042816699 0.00032114983
-0.057637319 -0.043591946 0.00032109022
0.030845106 0.088555902 -0.005653441
0.029947102 0.088329077 -0.0048817992
0.029448181 0.08754468 -0.0048817992
0.028949291 0.086760312 -0.0048819184
0.028055131 0.086539626 -0.0041101575
0.027162939 0.08632195 -0.0033385158
0.026665956 0.085540622 -0.0033385158
0.026169002 0.084759265 -0.0033385158
0.025280714 0.084547698 -0.002566874
0.024784714 0.083767891 -0.002566874
0.023899287 0.083560854 -0.0017952323
0.023015827 0.083356917 -0.0010235906
0.022521764 0.082580149 -0.0010235906
0.022027701 0.081803381 -0.0010236502
0.021148056 0.081605524 -0.00025194883
0.020655006 0.080830306 -0.00025194883
0.020161897 0.080055028 -0.00025194883
0.019286186 0.07986328 0.0005196929
0.01879403 0.079089552 0.00051963329
0.018301934 0.078315824 0.00051957369
0.017430097 0.078130156 0.001291275
0.016938925 0.077357948 0.0012912154
0.016069978 0.077176839 0.0020629168
0.015202969 0.0769988 0.0028346181
0.014337897 0.076823771 0.0036063194
0.013474733 0.076651782 0.0043780208
0.012613565 0.076482862 0.0051496625
0.011754304 0.076316983 0.0059213638
0.010896951 0.076154143 0.0066930652
0.010041565 0.075994402 0.0074647665
0.0091880858 0.075837642 0.0082364678
0.0079675019 0.07628873 0.0097798705
0.0071189106 0.076139599 0.010551512
0.0062722266 0.075993538 0.011323214
0.0054275095 0.075850517 0.012094915
0.0045846999 0.075710535 0.012866616
0.0037438571 0.075573593 0.013638318
0.0029049218 0.075439721 0.014409959
0.0024302304 0.074693412 0.014409959
0.001955539 0.073947102 0.014409959
0.0014808774 0.073200792 0.0144099
0.0010062158 0.072454482 0.01440984
0.00017312169 0.07232973 0.015181541
-0.00030061603 0.07158494 0.015181482
-0.00077435374 0.07084015 0.015181482
-0.0012480319 0.07009536 0.015181422
-0.0017217696 0.06935057 0.015181363
-0.0021954477 0.06860581 0.015181363
-0.0026691854 0.067860991 0.015181303
-0.0031429231 0.067116231 0.015181243
-0.0036166012 0.066371441 0.015181243
-0.0044400394 0.066261917 0.015952945
-0.0049127638 0.065518647 0.015952885
-0.0053855181 0.064775378 0.015952885
-0.0058582723 0.064032108 0.015952826
-0.0063309968 0.063288838 0.015952766
-0.0068037808 0.062545598 0.015952766
-0.0072765052 0.061802328 0.015952706
-0.0077492297 0.061059088 0.015952647
-0.0082220137 0.060315818 0.015952647
-0.0086947381 0.059572548 0.015952587
-0.0088274777 0.058178812 0.015180826
-0.0093011558 0.057434022 0.015180767
-0.0097748935 0.056689233 0.015180767
-0.010248572 0.055944473 0.015180767
-0.010722309 0.055199653 0.015180647
-0.011196017 0.054454893 0.015180647
-0.011669725 0.053710103 0.015180647
-0.011810213 0.052304149 0.014408886
-0.011952609 0.050895154 0.013637125
-0.012096971 0.04948312 0.012865365
-0.0125736 0.048733771 0.012865305
-0.013050228 0.047984421 0.012865245
-0.013526827 0.047235072 0.012865245
-0.014003485 0.046485692 0.012865186
-0.014480084 0.045736343 0.012865126
-0.014956683 0.044986993 0.012865126
-0.015433341 0.044237643 0.012865067
-0.01590994 0.043488294 0.012865007
-0.016063958 0.042061031 0.012093246
-0.016541511 0.041310161 0.012093246
-0.017019123 0.040559262 0.012093127
-0.017496735 0.039808393 0.012093127
-0.017974287 0.039057523 0.012093127
-0.018451899 0.038306624 0.012093067
-0.018929482 0.037555754 0.012093008
-0.019407064 0.036804885 0.012093008
-0.019884676 0.036054015 0.012092948
-0.020362228 0.035303146 0.012092888
-0.019901156 0.032472819 0.0097777247
-0.019133955 0.02893874 0.0066907406
-0.018374473 0.025392473 0.0036037564
-0.017932743 0.022531718 0.0012885332
-0.017805904 0.020361036 -0.00025492907
-0.017990887 0.018885046 -0.0010268092
-0.01848492 0.018108279 -0.0010268092
-0.018978983 0.017331511 -0.0010268092
-0.019778222 0.017260075 -0.00025510788
-0.020271331 0.016484827 -0.00025516748
-0.02106759 0.01641795 0.00051653385
-0.021559745 0.015644222 0.00051647425
-0.022051841 0.014870495 0.00051647425
-0.022543967 0.014096767 0.00051641464
-0.023036093 0.013323039 0.00051635504
-0.023229867 0.01183334 -0.0002554059
-0.023425519 0.010340571 -0.0010271668
-0.023030311 0.0074067414 -0.0033423901
-0.023231834 0.0059048235 -0.004114151
-0.023140758 0.0036778152 -0.0056576729
-0.023640633 0.0028918982 -0.0056577325
-0.024140507 0.0021059811 -0.0056577325
-0.024348795 0.00059345365 -0.0064294934
-0.024849623 -0.00019398332 -0.006429553
-0.025350481 -0.00098142028 -0.0064296126
-0.025851309 -0.0017688572 -0.0064296126
-0.026352137 -0.0025562942 -0.0064296722
-0.026852995 -0.0033437312 -0.0064297318
-0.027353823 -0.0041311681 -0.0064297318
-0.027854651 -0.0049185753 -0.0064297915
-0.028071672 -0.0064448416 -0.0072015524
-0.028573483 -0.0072338283 -0.007201612
-0.029075295 -0.0080227554 -0.007201612
-0.029577106 -0.0088117123 -0.0072016716
-0.030078888 -0.0096006691 -0.0072017312
-0.030580699 -0.010389626 -0.0072017312
-0.031082511 -0.011178583 -0.0072017908
-0.031861365 -0.011218041 -0.0064300895
-0.032362193 -0.012005478 -0.0064301491
-0.032863051 -0.012792915 -0.0064302087
-0.033363879 -0.013580322 -0.0064302087
-0.033864707 -0.014367759 -0.0064302683
-0.034637749 -0.014398068 -0.005658567
-0.035137624 -0.015183985 -0.005658567
-0.035637498 -0.015969902 -0.0056586862
-0.036137372 -0.01675579 -0.0056586862
-0.036905557 -0.016778529 -0.0048869848
-0.037404478 -0.017562896 -0.0048870444
-0.037903368 -0.018347293 -0.0048870444
-0.038402289 -0.01913169 -0.004887104
-0.03890118 -0.019916087 -0.0048871636
-0.039663583 -0.019929618 -0.0041154027
-0.04016152 -0.020712465 -0.0041154623
-0.040659457 -0.021495342 -0.0041155219
-0.041157395 -0.02227819 -0.0041155219
-0.041655332 -0.023061067 -0.0041155815
-0.042411894 -0.023065478 -0.0033438802
-0.042908847 -0.023846835 -0.0033439398
-0.043405801 -0.024628162 -0.0033439994
-0.03316167 -0.058295518 -0.035756886
-0.033699334 -0.059140831 -0.035756946
-0.034236997 -0.059986144 -0.035757005
-0.034774631 -0.060831457 -0.035757005
-0.035060436 -0.062465847 -0.036528885
-0.035599023 -0.063312709 -0.036528885
-0.03613767 -0.064159513 -0.036528945
-0.036427319 -0.065800041 -0.037300706
-0.03696692 -0.066648394 -0.037300766
-0.037506491 -0.067496747 -0.037300766
-0.038046092 -0.0683451 -0.037300885
-0.038340598 -0.069993168 -0.038072586
-0.038881153 -0.070843071 -0.038072646
-0.039421707 -0.071692914 -0.038072646
-0.039720088 -0.073347121 -0.038844407
-0.040261596 -0.074198514 -0.038844526
-0.040803134 -0.075049907 -0.038844526
0.029735178 0.088158041 -0.0062406659
0.029235333 0.087372124 -0.0062407255
0.028735429 0.086586207 -0.0062407851
0.027841538 0.086363226 -0.0054679513
0.027342618 0.085578829 -0.0054679513
0.026451558 0.085360438 -0.0046951175
0.025953621 0.08457756 -0.0046951771
0.025455713 0.083794713 -0.0046952367
0.024568588 0.083582401 -0.0039224029
0.024071604 0.082801044 -0.0039224029
0.02357462 0.082019717 -0.0039224625
0.022691399 0.081813484 -0.0031496882
0.021810085 0.081610292 -0.0023768544
0.021315068 0.080832005 -0.0023768544
0.020436615 0.080633372 -0.0016040802
0.019942552 0.079856604 -0.0016041398
0.019448519 0.079079837 -0.0016041398
0.01857391 0.078887343 -0.00083130598
0.01808086 0.078112096 -0.00083130598
0.017209202 0.077924132 -5.8472157e-05
0.016339511 0.077739209 0.00071430206
0.015848368 0.076967031 0.00071424246
0.014981538 0.076786667 0.0014870763
0.014116675 0.076609403 0.0022599101
0.012880057 0.077030063 0.0038056374
0.012020051 0.076860398 0.0045784116
0.011161953 0.076693743 0.0053512454
0.010305792 0.076530188 0.0061240792
0.0094515979 0.076369673 0.0068969131
0.0085993111 0.076212138 0.0076697469
0.0077489913 0.076057732 0.0084425807
0.0065336823 0.07651186 0.0099882483
0.0056882203 0.076365054 0.010761082
0.0048446357 0.076221257 0.011533916
0.0040030181 0.076080531 0.01230675
0.0031633675 0.075942844 0.013079584
0.0023256242 0.075808197 0.013852417
0.0018509328 0.075061888 0.013852417
0.0013762414 0.074315578 0.013852358
0.00090155005 0.073569268 0.013852298
6.8664551e-05 0.07344225 0.014625132
-0.00040504336 0.07269749 0.014625132
-0.00087878108 0.071952671 0.014625072
-0.0013524592 0.071207911 0.014625013
-0.0018261969 0.070463091 0.014625013
-0.0022999048 0.069718331 0.014624953
-0.0027736127 0.068973541 0.014624894
-0.0032473505 0.068228751 0.014624894
-0.0040715039 0.068115413 0.015397727
-0.0045442283 0.067372173 0.015397668
-0.0050170124 0.066628903 0.015397608
-0.0054897368 0.065885633 0.015397608
-0.0059624612 0.065142363 0.015397549
-0.0064352453 0.064399093 0.015397489
-0.0069079697 0.063655823 0.015397489
-0.0073806942 0.062912583 0.015397429
-0.0078534782 0.062169313 0.01539737
-0.0083262026 0.061426073 0.01539737
-0.0087989271 0.060682803 0.01539737
-0.0092717111 0.059939533 0.01539731
-0.0097444355 0.059196264 0.015397251
-0.01021716 0.058452994 0.015397251
-0.010689944 0.057709754 0.015397191
-0.011162668 0.056966484 0.015397131
-0.011635393 0.056223243 0.015397131
-0.012108177 0.055479974 0.015397072
-0.01224789 0.054077834 0.014624178
-0.012721568 0.053333074 0.014624178
-0.013195306 0.052588254 0.014624059
-0.013338894 0.051180035 0.013851225
-0.013484389 0.049768776 0.013078272
-0.013960063 0.049020916 0.013078272
-0.014435709 0.048273087 0.013078213
-0.014911383 0.047525257 0.013078153
-0.015387028 0.046777427 0.013078153
-0.015862674 0.046029598 0.013078153
-0.016338319 0.045281768 0.013078094
-0.016813964 0.044533938 0.013078034
-0.01696825 0.04310897 0.01230514
-0.017444879 0.04235962 0.012305081
-0.017921478 0.041610241 0.012305081
-0.018398076 0.040860891 0.012305021
-0.018874735 0.040111512 0.012304962
-0.019351333 0.039362162 0.012304962
-0.019827962 0.038612813 0.012304962
-0.02030459 0.037863463 0.012304842
-0.020781189 0.037114114 0.012304842
-0.021257818 0.036364764 0.012304842
-0.021422714 0.034923017 0.011531889
-0.021900266 0.034172148 0.01153183
-0.021448582 0.031334966 0.0092132092
-0.020693809 0.027791709 0.006121695
-0.019946843 0.024236232 0.0030301809
-0.019514471 0.021368593 0.00071150064
-0.019393831 0.019193381 -0.00083422661
-0.019886941 0.018418103 -0.00083428621
-0.02038002 0.017642885 -0.00083428621
-0.02117607 0.017573684 -6.1511993e-05
-0.021668226 0.016799957 -6.1571598e-05
-0.022160321 0.016026229 -6.1571598e-05
-0.022652477 0.015252531 -6.1571598e-05
-0.023144573 0.014478803 -6.1690807e-05
-0.023338526 0.012991399 -0.00083452463
-0.023534447 0.011500865 -0.0016074777
-0.02343604 0.0092906058 -0.0031532645
-0.023341596 0.0070742667 -0.0046989918
-0.023250967 0.0048517883 -0.0062448382
-0.023457497 0.003344506 -0.0070176721
-0.023958355 0.0025570989 -0.0070177317
-0.024167806 0.0010452867 -0.0077906251
-0.024669647 0.00025632977 -0.0077906847
-0.025171459 -0.0005325973 -0.0077907443
-0.02567324 -0.001321584 -0.0077907443
-0.026175052 -0.0021105111 -0.0077908039
-0.026676863 -0.0028994977 -0.0077908635
-0.027178675 -0.0036884248 -0.0077908635
-0.027680486 -0.0044773817 -0.0077909231
-0.027898639 -0.006002903 -0.0085638165
-0.028401405 -0.0067933798 -0.0085639358
-0.0289042 -0.0075838566 -0.0085639358
-0.029406965 -0.0083743334 -0.0085639358
-0.02990976 -0.0091648102 -0.008564055
-0.030691326 -0.0092110932 -0.0077911615
-0.031193137 -0.01000008 -0.0077912211
-0.031694949 -0.010789007 -0.0077912211
-0.03219673 -0.011577964 -0.0077912807
-0.032698542 -0.012366921 -0.0077913404
-0.033200353 -0.013155878 -0.0077913404
-0.033975124 -0.013191521 -0.0070185065
-0.034475952 -0.013978958 -0.0070185661
-0.03497681 -0.014766365 -0.0070186257
-0.035477638 -0.015553832 -0.0070186257
-0.035978466 -0.016341239 -0.0070186853
-0.036747426 -0.016367763 -0.0062458515
-0.0372473 -0.017153651 -0.0062459111
-0.037747175 -0.017939568 -0.0062459111
-0.038247049 -0.018725485 -0.0062459707
-0.038746893 -0.019511372 -0.0062460303
-0.039510041 -0.019528776 -0.0054731965
-0.040008932 -0.020313144 -0.0054731965
-0.040507823 -0.021097511 -0.0054732561
-0.041006774 -0.021881908 -0.0054733157
-0.041505665 -0.022666305 -0.0054733157
-0.042263001 -0.022674531 -0.0047004819
-0.032204896 -0.055342227 -0.036388338
-0.03274256 -0.05618754 -0.036388338
-0.033280224 -0.057032824 -0.036388397
-0.033817858 -0.057878137 -0.036388457
-0.034355491 -0.05872345 -0.036388457
-0.034893155 -0.059568733 -0.036388516
-0.035430819 -0.060414046 -0.036388576
-0.035968453 -0.061259359 -0.036388576
-0.036506087 -0.062104672 -0.036388695
-0.03704378 -0.062949985 -0.036388695
-0.037333637 -0.064588249 -0.037161648
-0.037872255 -0.065435052 -0.037161708
-0.038410872 -0.066281885 -0.037161767
-0.038704634 -0.067926198 -0.037934661
-0.039244205 -0.068774551 -0.037934721
-0.039783806 -0.069622904 -0.037934721
-0.040323406 -0.070471257 -0.03793478
-0.040621996 -0.0721232 -0.038707674
-0.04116255 -0.072973043 -0.038707674
-0.041703075 -0.073822945 -0.038707793
-0.042005569 -0.075480908 -0.039480627
-0.042547107 -0.076332361 -0.039480746
0.029520899 0.087988466 -0.0076018572
0.029020041 0.087201029 -0.0076019168
0.028519213 0.086413592 -0.0076019168
0.027625531 0.086188346 -0.0068279505
0.027125627 0.085402459 -0.0068280101
0.026234835 0.085181743 -0.0060540438
0.025735945 0.084397346 -0.0060541034
0.025237054 0.083612978 -0.0060541034
0.024738133 0.082828611 -0.006054163
0.02385214 0.082615525 -0.0052801967
0.023354203 0.081832677 -0.0052801967
0.022856265 0.08104983 -0.0052802563
0.021974176 0.080842823 -0.00450629
0.021477252 0.080061495 -0.00450629
0.020598084 0.079859078 -0.0037323833
0.020102113 0.07907927 -0.0037323833
0.019225806 0.078881413 -0.0029584765
0.018351495 0.078686625 -0.0021845102
0.017857462 0.077909857 -0.0021845698
0.016985983 0.077719659 -0.0014105439
0.01611647 0.07753244 -0.00063663721
0.015248924 0.077348322 0.00013738871
0.014383316 0.077167213 0.00091129541
0.013519615 0.076989204 0.0016853213
0.012657911 0.076814204 0.002459228
0.011426538 0.077237904 0.0040072203
0.010569662 0.077070534 0.0047811866
0.0097146332 0.076906204 0.0055551529
0.0088616312 0.076744914 0.0063291192
0.0080105364 0.076586634 0.0071030855
0.0071614087 0.076431483 0.0078770518
0.0063141882 0.076279312 0.0086510181
0.0054689348 0.076130211 0.0094249845
0.0042617619 0.076591998 0.010972917
0.0034213364 0.076450557 0.011746943
0.0025828779 0.076312095 0.01252085
0.0017462671 0.076176703 0.013294876
0.0012716055 0.075430393 0.013294816
0.00043794513 0.075299561 0.014068782
-3.5732985e-05 0.074554771 0.014068723
-0.0005094707 0.073810011 0.014068663
-0.00098317862 0.073065221 0.014068663
-0.0014568865 0.072320431 0.014068604
-0.0019306242 0.071575642 0.014068544
-0.0024043024 0.070830852 0.014068544
-0.0028780401 0.070086062 0.014068544
-0.0037029684 0.069968939 0.014842451
-0.0041756928 0.069225699 0.014842451
-0.004648447 0.068482429 0.014842391
-0.0051212013 0.067739159 0.014842331
-0.0055939257 0.066995889 0.014842331
-0.0060667098 0.066252619 0.014842272
-0.0065394342 0.065509349 0.014842212
-0.0070121586 0.064766109 0.014842212
-0.0078283846 0.064662695 0.015616179
-0.0083001554 0.063920945 0.015616119
-0.0087719262 0.063179225 0.015616119
-0.0092436969 0.062437475 0.015616059
-0.0097154677 0.061695725 0.015616
-0.010187238 0.060954005 0.015616
-0.010659039 0.060212284 0.015616
-0.01113084 0.059470505 0.01561588
-0.01160261 0.058728784 0.01561588
-0.012074381 0.057987064 0.01561588
-0.012212366 0.056590229 0.014841795
-0.01268509 0.055846959 0.014841735
-0.013157874 0.055103689 0.014841735
-0.013630599 0.05436042 0.014841735
-0.014103323 0.053617179 0.014841676
-0.014247149 0.052211225 0.01406759
-0.014392912 0.050802201 0.013293564
-0.014867574 0.050055891 0.013293564
-0.015342265 0.049309611 0.013293505
-0.015816957 0.048563302 0.013293445
-0.016291648 0.047816992 0.013293445
-0.01676634 0.047070682 0.013293386
-0.017241001 0.046324372 0.013293326
-0.017715663 0.045578063 0.013293326
-0.017870098 0.044155359 0.0125193
-0.018345743 0.04340753 0.01251924
-0.018821388 0.04265967 0.012519181
-0.019297063 0.04191187 0.012519181
-0.019772738 0.041164011 0.012519181
-0.020248383 0.040416211 0.012519062
-0.020724028 0.039668351 0.012519062
-0.021199673 0.038920552 0.012519062
-0.021675318 0.038172692 0.012519002
-0.022150964 0.037424892 0.012518942
-0.022316128 0.03598538 0.011744916
-0.022792727 0.035236061 0.011744916
-0.022960752 0.033792019 0.010970771
-0.022823066 0.031648725 0.0094227791
-0.022689313 0.029499352 0.0078747272
-0.022253722 0.026644647 0.0055527091
-0.021519214 0.023080021 0.0024566054
-0.0210962 0.020205468 0.00013452768
-0.020981818 0.018025666 -0.0014135242
-0.021776706 0.01795575 -0.00063955784
-0.022268802 0.017182022 -0.00063961744
-0.022760957 0.016408294 -0.00063961744
-0.023551971 0.016344458 0.00013428926
-0.023447245 0.014149398 -0.001413703
-0.023643345 0.012661189 -0.0021877885
-0.023545414 0.010455459 -0.0037358403
-0.023746401 0.008959651 -0.0045098662
-0.023655206 0.0067432225 -0.0060579181
-0.023567945 0.0045207739 -0.0076059699
-0.023776621 0.0030127466 -0.0083799958
-0.023987263 0.0015017092 -0.0091540813
-0.024490029 0.00071123242 -0.0091541409
-0.024992824 -7.9244375e-05 -0.0091541409
-0.025495589 -0.00086972117 -0.0091542006
-0.025998384 -0.001660198 -0.0091542602
-0.026501149 -0.0024506748 -0.0091542602
-0.027003914 -0.0032411516 -0.0091543198
-0.027506679 -0.0040316284 -0.0091543794
-0.027726084 -0.0055563748 -0.0099284053
-0.028229803 -0.0063484013 -0.0099284053
-0.028733552 -0.0071403682 -0.0099285245
-0.0292373 -0.0079323947 -0.0099285245
-0.030020565 -0.0079840124 -0.0091545582
-0.03052333 -0.0087744892 -0.0091546178
-0.031026125 -0.009564966 -0.0091546178
-0.03152892 -0.010355473 -0.0091546774
-0.032031685 -0.01114592 -0.009154737
-0.03253445 -0.011936396 -0.009154737
-0.03331098 -0.011977345 -0.0083807707
-0.033812791 -0.012766331 -0.0083808303
-0.034314603 -0.013555259 -0.0083808303
-0.034816384 -0.014344215 -0.0083808303
-0.035318196 -0.015133172 -0.0083809495
-0.035820007 -0.015922129 -0.0083809495
-0.036589712 -0.015952438 -0.0076069832
-0.03709057 -0.016739875 -0.0076070428
-0.037591368 -0.017527312 -0.0076070428
-0.038092226 -0.018314749 -0.0076071024
-0.038593054 -0.019102156 -0.007607162
-0.039356947 -0.019123316 -0.0068331361
-0.039856821 -0.019909233 -0.0068332553
-0.040356696 -0.02069512 -0.0068332553
-0.04085657 -0.021481067 -0.0068332553
-0.041615635 -0.021494627 -0.0060593486
-0.032043993 -0.052460343 -0.036245763
-0.032580674 -0.053304136 -0.036245883
-0.033117354 -0.054147929 -0.036245883
-0.033654034 -0.054991692 -0.036245883
-0.034190714 -0.055835485 -0.036246002
-0.034727395 -0.056679279 -0.036246002
-0.035264075 -0.057523042 -0.036246061
-0.035800785 -0.058366865 -0.036246121
-0.036337435 -0.059210628 -0.036246121
-0.036874115 -0.060054392 -0.036246181
-0.037410825 -0.060898215 -0.03624624
-0.037947476 -0.061741978 -0.03624624
-0.038237572 -0.063377917 -0.037020266
-0.038775235 -0.06422323 -0.037020326
-0.039312869 -0.065068513 -0.037020385
-0.039606839 -0.066710591 -0.037794471
-0.040145457 -0.067557395 -0.03779453
-0.040684074 -0.068404227 -0.03779453
-0.040981919 -0.070052356 -0.038568616
-0.041521519 -0.070900708 -0.038568676
-0.04206112 -0.071749121 -0.038568676
-0.042600691 -0.072597474 -0.038568735
-0.042903364 -0.074253172 -0.039342761
-0.043443918 -0.075103015 -0.039342821
-0.043984503 -0.075952917 -0.039342821
0.028802425 0.087031484 -0.0089653134
0.028300613 0.086242527 -0.008965373
0.02740714 0.086014986 -0.0081902742
0.026906282 0.085227579 -0.0081903338
0.026405483 0.084440142 -0.0081903338
0.025515825 0.084218681 -0.007415235
0.02501598 0.083432764 -0.0074152946
0.024516076 0.082646877 -0.0074153543
0.023630351 0.082431495 -0.0066402555
0.02313146 0.081647128 -0.0066402555
0.022632569 0.080862731 -0.0066403151
0.021750659 0.080653489 -0.0058651567
0.021252722 0.079870641 -0.0058652163
0.020754784 0.079087764 -0.0058652759
0.019876808 0.078884602 -0.0050901771
0.019379824 0.078103274 -0.0050901771
0.018504769 0.077904671 -0.0043150783
0.017254472 0.078293383 -0.0027648807
0.016760439 0.077516615 -0.0027649403
0.015515894 0.077914476 -0.0012146831
0.01464954 0.077729583 -0.00043958426
0.013785094 0.077547759 0.00033551455
0.012922555 0.077368945 0.0011106133
0.012062043 0.07719323 0.0018857121
0.011203408 0.077020496 0.0026608109
0.0099773109 0.077447295 0.0042110682
0.009123534 0.07728222 0.0049862266
0.0082716644 0.077120185 0.0057613254
0.0074217618 0.07696119 0.0065364242
0.0065738261 0.076805264 0.007311523
0.0057277977 0.076652318 0.0080866218
0.0048836768 0.076502472 0.0088617206
0.0036788881 0.076962769 0.010411918
0.0028396547 0.076820552 0.011187017
0.0020023882 0.076681346 0.011962175
0.0011669695 0.076545209 0.012737274
0.00033351779 0.076412112 0.013512373
-0.00014016032 0.075667292 0.013512313
-0.00061389804 0.074922532 0.013512313
-0.0010876358 0.074177742 0.013512254
-0.0015613139 0.073432952 0.013512194
-0.0020350516 0.072688192 0.013512194
-0.0025087297 0.071943372 0.013512135
-0.0033344328 0.071822435 0.014287233
-0.0038071573 0.071079195 0.014287174
-0.0042799413 0.070335925 0.014287174
-0.0047526658 0.069592685 0.014287174
-0.0052253902 0.068849415 0.014287055
-0.0056981742 0.068106145 0.014287055
-0.0061708987 0.067362875 0.014287055
-0.0066436231 0.066619605 0.014286995
-0.0071164072 0.065876335 0.014286935
-0.0079323947 0.065770686 0.015062034
-0.0084041655 0.065028936 0.015062034
-0.0088759363 0.064287215 0.015061975
-0.009347707 0.063545436 0.015061915
-0.0098194778 0.062803715 0.015061915
-0.010291249 0.062061995 0.015061855
-0.010763019 0.061320245 0.015061796
-0.01123479 0.060578495 0.015061796
-0.011706591 0.059836775 0.015061796
-0.012178391 0.059095025 0.015061677
-0.012650162 0.058353275 0.015061677
-0.013121933 0.057611555 0.015061677
-0.013593704 0.056869805 0.015061617
-0.014065474 0.056128055 0.015061557
-0.014537245 0.055386335 0.015061557
-0.015009016 0.054644585 0.015061498
-0.015480787 0.053902864 0.015061438
-0.015625805 0.052497655 0.01428628
-0.01577273 0.051089406 0.013511121
-0.016246438 0.050344616 0.013511062
-0.016720146 0.049599856 0.013511002
-0.017193884 0.048855036 0.013511002
-0.017667562 0.048110276 0.013511002
-0.018141299 0.047365487 0.013510883
-0.018614978 0.046620697 0.013510883
-0.018769681 0.045200258 0.012735724
-0.019244343 0.044453949 0.012735665
-0.019719034 0.043707639 0.012735665
-0.020193726 0.042961329 0.012735605
-0.020668417 0.042215019 0.012735546
-0.021143109 0.04146871 0.012735546
-0.0216178 0.0407224 0.012735486
-0.022092432 0.03997609 0.012735426
-0.022255808 0.038541943 0.011960268
-0.022731453 0.037794143 0.011960208
-0.023207128 0.037046283 0.011960208
-0.023374408 0.035606056 0.01118499
-0.023851067 0.034856707 0.01118499
-0.023714751 0.032716423 0.0096346736
-0.023582369 0.03057009 0.0080843568
-0.023453861 0.028417647 0.00653404
-0.023632765 0.026959151 0.005758822
-0.023511022 0.024796009 0.0042085052
-0.023091555 0.021923751 0.0018829703
-0.022677928 0.019042343 -0.00044244528
-0.022869438 0.017564029 -0.0012176633
-0.023660213 0.017497927 -0.00044256449
-0.02385366 0.016016603 -0.0012177825
-0.023752242 0.013821512 -0.0027680993
-0.023950547 0.012332529 -0.0035432577
-0.023855954 0.010126799 -0.0050935745
-0.024059057 0.0086301863 -0.0058687329
-0.02397123 0.0064137876 -0.0074190497
-0.023887247 0.0041912496 -0.0089694262
-0.023807138 0.0019626915 -0.010519803
-0.024310917 0.001170665 -0.010519803
-0.024814636 0.00037866831 -0.010519862
-0.025318384 -0.00041332841 -0.010519922
-0.025822133 -0.0012053251 -0.010519922
-0.026325881 -0.0019973218 -0.010519922
-0.02682963 -0.0027893484 -0.010520041
-0.027333349 -0.0035813153 -0.010520041
-0.027837127 -0.0043733418 -0.010520041
-0.028058648 -0.0058988631 -0.011295259
-0.02856335 -0.0066923797 -0.011295319
-0.029348344 -0.006749332 -0.01052016
-0.029852062 -0.0075413287 -0.010520279
-0.030355841 -0.0083333552 -0.010520279
-0.03085956 -0.0091253221 -0.010520279
-0.031363338 -0.0099173486 -0.010520399
-0.031867057 -0.010709316 -0.010520399
-0.032645285 -0.010755628 -0.0097452998
-0.03314805 -0.011546105 -0.0097452998
-0.033650845 -0.012336582 -0.0097453594
-0.03415361 -0.013127059 -0.009745419
-0.034656376 -0.013917536 -0.009745419
-0.035159171 -0.014708012 -0.0097454786
-0.035930604 -0.014743626 -0.0089703202
-0.036432415 -0.015532583 -0.0089703798
-0.036934227 -0.01632154 -0.0089704394
-0.037436038 -0.017110497 -0.0089704394
-0.03793785 -0.017899424 -0.008970499
-0.038703471 -0.017925948 -0.0081954002
-0.039204299 -0.018713355 -0.0081954598
-0.039705127 -0.019500762 -0.0081954598
-0.040205985 -0.020288229 -0.0081955194
-0.031348854 -0.048743814 -0.036100924
-0.031884581 -0.049586087 -0.036100984
-0.032420307 -0.050428331 -0.036101043
-0.032956034 -0.051270604 -0.036101043
-0.033491731 -0.052112848 -0.036101103
-0.034027427 -0.052955121 -0.036101162
-0.034563154 -0.053797364 -0.036101162
-0.035098881 -0.054639637 -0.036101222
-0.035634577 -0.055481881 -0.036101282
-0.036170274 -0.056324154 -0.036101282
-0.036706001 -0.057166427 -0.036101341
-0.037241727 -0.058008701 -0.036101401
-0.037777454 -0.058850974 -0.036101401
-0.038313121 -0.059693187 -0.03610152
-0.038848847 -0.060535461 -0.03610152
-0.039139181 -0.062169164 -0.036876738
-0.039675862 -0.063012928 -0.036876738
-0.040212542 -0.063856721 -0.036876798
-0.040506691 -0.065496445 -0.037651956
-0.041044325 -0.066341758 -0.037651956
-0.041581988 -0.067187071 -0.037652075
-0.041880041 -0.068832904 -0.038427293
-0.042418689 -0.069679767 -0.038427293
-0.042957276 -0.07052657 -0.038427353
-0.043259233 -0.072178572 -0.039202511
-0.043798834 -0.073026925 -0.039202631
-0.044338405 -0.073875278 -0.039202631
-0.044877976 -0.074723631 -0.03920269
0.027576953 0.085282445 -0.010331154
0.026684612 0.085054189 -0.009554863
0.026182801 0.084265202 -0.0095549226
0.025680989 0.083476275 -0.0095549226
0.024792522 0.083254069 -0.0087787509
0.024291724 0.082466632 -0.0087787509
0.023790866 0.081679195 -0.0087788105
0.022906303 0.081463099 -0.0080025792
0.022406429 0.080677181 -0.0080025792
0.021906585 0.079891294 -0.0080026388
0.021025866 0.079681277 -0.0072264075
0.020526975 0.07889688 -0.0072264075
0.019649178 0.078691453 -0.0064501762
0.018773347 0.078489065 -0.005673945
0.018276364 0.077707738 -0.005673945
0.017027467 0.07809341 -0.0041214824
0.016157448 0.077900141 -0.0033453107
0.015289336 0.077709943 -0.0025690198
0.014050096 0.078110874 -0.0010164976
0.013186842 0.077928275 -0.00024026632
0.012325495 0.077748746 0.00053602457
0.011466175 0.077572256 0.0013121963
0.010608703 0.077398777 0.0020884871
0.0097531974 0.077228367 0.0028647184
0.0085323751 0.077658236 0.0044172406
0.0076816976 0.077495456 0.0051934719
0.0068329871 0.077335685 0.0059697032
0.0059862137 0.077179015 0.0067459941
0.0051413476 0.077025324 0.0075221658
0.0042984784 0.076874733 0.0082984567
0.0034574866 0.076727182 0.0090746284
0.002257973 0.077190548 0.01062721
0.001421839 0.077050596 0.011403441
0.00058764219 0.076913685 0.012179673
-0.00024458766 0.076779842 0.012955964
-0.00071832538 0.076035053 0.012955844
-0.0011920333 0.075290293 0.012955844
-0.0016657412 0.074545473 0.012955844
-0.0021394789 0.073800713 0.012955785
-0.0029658973 0.07367596 0.013732016
-0.0034386218 0.07293272 0.013732016
-0.0039114058 0.07218945 0.013731897
-0.0043841302 0.07144621 0.013731897
-0.0048568547 0.07070294 0.013731897
-0.0053296387 0.06995967 0.013731837
-0.0058023632 0.0692164 0.013731778
-0.0062750876 0.06847313 0.013731778
-0.0067478716 0.067729861 0.013731718
-0.0075646341 0.067620397 0.014507949
-0.0080364048 0.066878647 0.014507949
-0.0085081756 0.066136926 0.01450789
-0.0089799464 0.065395176 0.01450783
-0.0094517171 0.064653426 0.01450783
-0.0099234879 0.063911706 0.014507771
-0.010395259 0.063169956 0.014507711
-0.010867029 0.062428206 0.014507711
-0.01167509 0.062332451 0.015283942
-0.012145877 0.061592221 0.015283883
-0.012616664 0.060852021 0.015283883
-0.013087481 0.060111791 0.015283823
-0.013558298 0.059371561 0.015283763
-0.014029115 0.05863139 0.015283763
-0.014499933 0.05789116 0.015283704
-0.01497072 0.05715093 0.015283644
-0.015441507 0.05641073 0.015283644
-0.015584797 0.055010825 0.014507353
-0.016056567 0.054269105 0.014507294
-0.016528338 0.053527355 0.014507234
-0.016675502 0.052121371 0.013730943
-0.017148226 0.051378101 0.013730943
-0.017620981 0.050634831 0.013730884
-0.018093735 0.049891591 0.013730824
-0.018566459 0.049148321 0.013730824
-0.019039214 0.048405081 0.013730764
-0.019511968 0.047661811 0.013730705
-0.019666851 0.046243668 0.012954414
-0.020140558 0.045498878 0.012954414
-0.020614296 0.044754088 0.012954295
-0.021087974 0.044009298 0.012954295
-0.021561712 0.043264508 0.012954295
-0.02203542 0.042519718 0.012954235
-0.022509128 0.041774958 0.012954175
-0.022671789 0.040344596 0.012177885
-0.02314648 0.039598286 0.012177825
-0.023311973 0.038163394 0.011401534
-0.023787647 0.037415534 0.011401474
-0.024263293 0.036667705 0.011401474
-0.024432749 0.035226703 0.010625124
-0.024604052 0.033782631 0.0098487735
-0.024473101 0.031639308 0.0082961917
-0.024345964 0.029489905 0.0067436099
-0.024222702 0.027334422 0.0051910281
-0.024404734 0.025873572 0.0044146776
-0.024288267 0.02370742 0.0028620362
-0.024175674 0.021535188 0.0013094544
-0.024066955 0.019356817 -0.00024312735
-0.02396214 0.017172366 -0.0017957687
-0.024157733 0.015690237 -0.0025720596
-0.024059623 0.013495117 -0.004124701
-0.023965508 0.011293918 -0.0056772828
-0.024168819 0.0097995996 -0.0064535737
-0.024081379 0.0075877607 -0.0080062151
-0.024289578 0.006085813 -0.0087825656
-0.024208933 0.0038632751 -0.010335147
-0.024132192 0.0016346574 -0.011887729
-0.024636894 0.00084114075 -0.011887848
-0.025141627 4.7594309e-05 -0.011887848
-0.025646329 -0.00074592233 -0.011887848
-0.026151031 -0.001539439 -0.011887968
-0.026655763 -0.0023329556 -0.011887968
-0.027160466 -0.0031264722 -0.011887968
-0.027665168 -0.0039199889 -0.011888027
-0.027887911 -0.0054447651 -0.012664378
-0.028674632 -0.0055070519 -0.011888087
-0.029179305 -0.0063005686 -0.011888146
-0.029684037 -0.0070940852 -0.011888206
-0.030188769 -0.0078876317 -0.011888206
-0.030693442 -0.0086811483 -0.011888266
-0.031198174 -0.0094746649 -0.011888325
-0.031978101 -0.0095262825 -0.011112034
-0.032481849 -0.010318249 -0.011112154
-0.032985598 -0.011110276 -0.011112154
-0.033489347 -0.011902303 -0.011112154
-0.033993095 -0.012694269 -0.011112273
-0.034496814 -0.013486296 -0.011112273
-0.035270005 -0.013527244 -0.010336041
-0.035772771 -0.014317721 -0.010336101
-0.036275536 -0.015108198 -0.010336101
-0.036778301 -0.015898675 -0.010336101
